62
94190.796875 42843.554688 17986.386719
98499.34375 32912.503906 60164.328125
97183.375 33687.949219 59839.835938
99068.523438 32790.0625 60477.515625
96850.359375 33275.71875 59094.136719
99125.265625 34016.683594 61635.664062
97612.765625 32955.082031 59489.144531
105027.859375 62783.777344 81670.21875
107196.710938 64436.992188 80778.3125
106567.1875 63203.484375 81093.046875
95929.703125 43441.75 16555.019531
94220.320312 43574.972656 17849.53125
106458.242188 65023.828125 81105.671875
104322.789062 63911.289062 81969.273438
106601.539062 64034.402344 81071.382812
105764.15625 61828.210938 81378.210938
98120.640625 33961.519531 60874.003906
95758.671875 41821.238281 16773.5625
96234.359375 41057.34375 16507.560547
96442.632812 42342.265625 16271.50293
94829.75 43766.621094 17333.023438
105765.835938 62651.996094 81419.9375
107048.476562 62399.660156 80830.617188
96554.164062 34489.128906 59999.515625
97956.023438 33434.261719 60248.453125
97455.5625 34094.257812 60480.242188
98792.882812 33504.378906 60953.605469
97578.265625 34748.507812 61208.515625
96969.265625 34747.71875 60681.839844
104186.828125 62858.8125 81969.726562
94733.484375 42291.734375 17565.09375
96524.0 34000.300781 59479.601562
96339.828125 43127.902344 16229.232422
96362.84375 41696.59375 16322.369141
95142.96875 44571.355469 17035.167969
94700.992188 41525.851562 17758.615234
95406.523438 42798.070312 16991.460938
97803.710938 32196.199219 58945.773438
96903.757812 42807.636719 15923.68457
96238.195312 44115.644531 16315.143555
95918.164062 42577.8125 16631.199219
105141.890625 65016.898438 81682.0625
95219.117188 41762.019531 17225.814453
105176.734375 64155.292969 81671.71875
96803.679688 43660.660156 15940.369141
105799.25 63504.589844 81445.65625
105743.882812 65403.761719 81412.460938
105898.296875 64443.964844 81398.5
104888.921875 63437.652344 81779.265625
104975.484375 62056.476562 81648.773438
106407.125 62390.46875 81147.601562
99512.898438 33169.394531 61129.652344
107292.695312 63344.191406 80735.5
94854.65625 43040.480469 17387.933594
95488.96875 43821.753906 16841.820312
98314.59375 32434.472656 59584.4375
99116.773438 32163.599609 59962.800781
95585.015625 41034.675781 17043.197266
97146.3125 32591.875 58692.738281
99635.914062 32430.759766 60556.992188
104459.125 64635.09375 81923.351562
98425.875 34311.523438 61432.683594
